41.0648003	0.514355481	-48.0849686
41.266716	0.514370322	-48.168457
41.4682236	0.514379978	-48.2226562
41.6690331	0.514380932	-48.2279549
41.8714943	0.514402151	-48.3470879
42.0763321	0.514452219	-48.6283112
42.2811508	0.514501572	-48.9053802
42.4837418	0.514523506	-49.0284157
42.6845398	0.514523566	-49.0289078
42.8860168	0.514531851	-49.0753632
43.0870972	0.514535308	-49.0946465
43.2878532	0.514534831	-49.0922089
43.4899712	0.514550447	-49.1799202
43.6990395	0.514647841	-49.7268028
43.9093704	0.514759183	-50.3517342
44.1189384	0.514860511	-50.9208298
44.3279076	0.514953971	-51.4457436
44.5524101	0.515226305	-52.9746857
44.7838631	0.515576124	-54.9391174
45.0156364	0.51592654	-56.9064789
-35.5511551	0.314871997	-59.5094185
-35.3301773	0.314698696	-57.9133224
-35.11063	0.314536154	-56.4168282
-34.8924713	0.314384311	-55.0182266
-34.6779251	0.314263403	-53.9049988
-34.4665756	0.314170271	-53.0473671
-34.2590218	0.314110786	-52.4997711
-34.0546188	0.314079672	-52.2131424
-33.8509102	0.314054668	-51.9829063
-33.6478653	0.314035535	-51.806694
-33.4439659	0.314008117	-51.5542412
-33.2378998	0.313959986	-51.1109543
-33.0292816	0.31388697	-50.4386063
-32.8196983	0.313803822	-49.6728287
-32.6113701	0.3137317	-49.0088501
-32.4057617	0.313685089	-48.5794754
-32.1985092	0.313621789	-47.9967918
-31.9938221	0.313582897	-47.6384544
-31.7915554	0.31356734	-47.4954376
-31.5872498	0.313531399	-47.164444
-31.3836975	0.31350252	-46.8983841
-31.1847858	0.313519895	-47.0583992
-30.9793339	0.313471347	-46.6114464
-30.777113	0.313455075	-46.4616623
-30.5785942	0.313476533	-46.6592026
-30.3772717	0.313469291	-46.5924225
-30.174139	0.313443214	-46.352314
-29.9724293	0.31343165	-46.245739
-29.7722111	0.313435644	-46.2824707
-29.5709229	0.313428313	-46.2152023
-29.3698864	0.313423634	-46.1718597
-29.1693115	0.313423783	-46.1734352
-28.9684315	0.313420624	-46.1442528
-28.7682667	0.313425273	-46.1871567
-28.5684872	0.313434184	-46.2690544
-28.3682384	0.313438058	-46.3048058
-28.164856	0.313407093	-46.0198479
-27.9655609	0.313421488	-46.1523476
-27.7686462	0.313462973	-46.5342789
-27.5686646	0.313470215	-46.6008644
-27.3678036	0.313467443	-46.5754166
-27.1726265	0.313530236	-47.153698
-26.9762096	0.313579559	-47.6077194
-26.7776432	0.313604444	-47.8368988
-26.5764732	0.31359899	-47.7866211
-26.3775425	0.313620061	-47.9808884
-26.1798592	0.31365642	-48.3155327
-25.9791489	0.313656747	-48.318718
-25.781044	0.313688815	-48.6138153
-25.5828762	0.313720584	-48.9065399
-25.3831367	0.313733518	-49.025444
-25.1847115	0.313762933	-49.2966156
-24.9862652	0.313792646	-49.5700569
-24.7863522	0.313804209	-49.6765137
-24.586998	0.313823104	-49.8505898
-24.3885517	0.313853979	-50.1347733
-24.1878605	0.313856244	-50.1556129
-23.9876423	0.313864768	-50.2342377
-23.787529	0.313874811	-50.3265305
-23.5872726	0.313883066	-50.4027863
-23.3857422	0.313874453	-50.3232117
-23.1820488	0.313836366	-49.9724808
-22.9800797	0.313821137	-49.8324356
-22.777607	0.313798696	-49.6256676
-22.5736694	0.313755542	-49.228302
-22.3707256	0.313725531	-48.9520302
-22.1721897	0.31375733	-49.2448311
-21.9700203	0.313737869	-49.0654793
-21.7617645	0.313630283	-48.0748672
-21.5546646	0.313537538	-47.2207985
-20.7515907	0.31353122	-47.1626167
-20.5521832	0.313550323	-47.3385506
-20.350872	0.313540459	-47.2478867
-20.1477451	0.313502163	-46.8952675
-19.9493504	0.313537508	-47.2206116
-19.7459774	0.313494474	-46.8245392
-19.5435658	0.313466042	-46.5624924
-19.3418636	0.313448459	-46.4005432
-19.1407967	0.313440919	-46.3311195
-18.9401035	0.313439429	-46.3173599
-18.7417412	0.313476861	-46.6620636
-18.5410137	0.313475102	-46.6461067
-18.3395233	0.31346032	-46.509861
-18.1377888	0.313441008	-46.3317986
-17.9370022	0.31343776	-46.3019981
-17.7363586	0.313436985	-46.294899
-17.5352135	0.31342724	-46.2052879
-17.3347206	0.313429087	-46.2221146
-17.1344185	0.313434422	-46.2711716
-16.9338341	0.31343466	-46.2735939
-16.733881	0.31344676	-46.3849068
-16.5330486	0.313442409	-46.3450928
-16.3317413	0.313428938	-46.2208862
-16.1311398	0.313428789	-46.2194023
-15.929307	0.313404441	-45.9953423
-15.728653	0.313402921	-45.981163
-15.5275021	0.313391358	-45.8747749
-15.3260841	0.313374043	-45.7154121
-15.1253061	0.313369542	-45.6737175
-14.9244213	0.313362598	-45.6099815
-14.7240448	0.313366354	-45.6445312
-14.5243607	0.313385129	-45.8174362
-14.3243561	0.313397437	-45.9307747
-14.1239281	0.313400686	-45.9606133
-13.9235983	0.313406229	-46.011692
-13.7233114	0.313412935	-46.0733452
-13.5226231	0.313410521	-46.0511818
-13.321866	0.313406408	-46.0132256
-13.1215887	0.31341362	-46.0799294
-12.920742	0.313407302	-46.0214653
-12.7199373	0.313401759	-45.9705696
-12.5184813	0.313379765	-45.7678185
-12.316741	0.313349783	-45.4920692
-12.1168642	0.313367069	-45.6511307
-11.9174862	0.313398004	-45.9359245
-11.7171993	0.313405693	-46.0068512
-11.5166931	0.313407719	-46.0253601
-11.3162575	0.313411713	-46.062355
-11.1155205	0.313407391	-46.0225143
-10.9146595	0.313399345	-45.9484253
-10.7141228	0.313400507	-45.9588776
-10.5135422	0.313400328	-45.9575424
-10.3127985	0.313395292	-45.9111099
-10.1121883	0.313394129	-45.900322
-9.91176605	0.313398868	-45.9439812
-9.7107029	0.313383132	-45.7989159
-9.50972652	0.313369572	-45.674118
-9.30913162	0.313368291	-45.6623535
-9.10938931	0.313396245	-45.9199486
-8.90937233	0.313415855	-46.1003227
-8.70864582	0.313410789	-46.0536499
-8.50724506	0.313380659	-45.7763329
-8.30636501	0.313368708	-45.666256
-8.10573578	0.313365877	-45.6403313
-7.90481281	0.313351303	-45.5058365
-7.70464993	0.31336683	-45.6489334
-7.50474405	0.313393921	-45.8984718
-7.30338526	0.313360184	-45.5877075
-7.10262346	0.313350856	-45.5018005
-6.90223598	0.313357979	-45.5675011
-6.70178604	0.313362598	-45.6100082
-6.501266	0.313364118	-45.6240234
-6.30101585	0.313379228	-45.7629662
-6.10090065	0.313402176	-45.9744911
-5.90056372	0.313414991	-46.0924416
-5.69987059	0.31340906	-46.0376091
-5.49884796	0.313383967	-45.8065071
-5.29792118	0.313362598	-45.6100006
-5.09726	0.313355893	-45.5480919
-4.89654064	0.313344896	-45.4468727
-4.69598436	0.313343883	-45.4374504
-4.49548292	0.313346535	-45.4622078
-4.29491425	0.313344568	-45.4440689
-4.09458256	0.313360572	-45.5913849
-3.89401317	0.313359082	-45.5775719
-3.69343495	0.313356698	-45.5555267
-3.49285436	0.313353777	-45.5287704
-3.29240108	0.313362658	-45.6104851
-3.09197736	0.313375652	-45.7302856
-2.89161015	0.313396603	-45.9230843
-2.69112301	0.313406706	-46.016201
-2.49053979	0.313406318	-46.0124664
-2.29000807	0.313412935	-46.0734291
-2.08940244	0.313409746	-46.0440636
-1.88871765	0.313392729	-45.8873253
-1.68805504	0.313375771	-45.7312469
-1.48752391	0.313382	-45.7885475
-1.28704834	0.313403606	-45.9877663
-1.08634353	0.313367128	-45.6517563
-0.885744512	0.313351542	-45.5082016
-0.685150743	0.31332925	-45.3028793
-0.484634101	0.313338399	-45.3869629
-0.284132987	0.31337744	-45.746582
-0.0835722536	0.313380659	-45.776123
0.11698322	0.313358814	-45.5751953
0.317545444	0.313371241	-45.6894531
0.518142581	0.313395143	-45.909668
0.718748152	0.313409388	-46.0409164
0.919282675	0.313393176	-45.8915024
1.11979187	0.313375741	-45.731102
1.32039905	0.313386798	-45.8329811
1.52092648	0.313378543	-45.7568092
1.72146809	0.313374758	-45.7219696
1.92216313	0.313396811	-45.9249229
2.12269855	0.313391149	-45.8727455
2.32312346	0.313371539	-45.6921539
2.5236001	0.313361436	-45.5992088
2.72416306	0.313362807	-45.6117325
2.92471123	0.31336236	-45.6076546
3.12537694	0.313373744	-45.7127075
3.32611299	0.313390404	-45.8661003
3.52672529	0.313394219	-45.9009132
3.72724295	0.313389599	-45.8585052
3.92786002	0.313393414	-45.8935585
4.12846327	0.313395798	-45.9156036
4.32910681	0.313400865	-45.9623795
4.52957869	0.313393623	-45.8956299
4.72991323	0.313377917	-45.7509995
4.93014097	0.313356668	-45.5553436
5.1307807	0.313362241	-45.6067581
5.33133841	0.313362569	-45.6098289
5.53207588	0.313373119	-45.7066536
5.73264885	0.313373864	-45.7136345
5.9331646	0.313371539	-45.6923676
6.13374043	0.313372493	-45.7010574
6.33387518	0.313351572	-45.5084
6.53399038	0.313330948	-45.3183594
6.73470211	0.313339293	-45.3954811
6.93598366	0.31337294	-45.7050247
7.13678312	0.31338352	-45.802578
7.33676767	0.313358694	-45.5740356
7.53712702	0.313350797	-45.501255
7.73795795	0.31336239	-45.6079178
7.93860817	0.313366264	-45.6438484
8.13906765	0.313362598	-45.6098862
8.33955956	0.313360363	-45.5893517
8.53991508	0.313353181	-45.5232353
8.7406559	0.313360184	-45.5876579
8.94179535	0.313380808	-45.7776451
9.14260864	0.313389361	-45.856472
9.34275341	0.313375115	-45.7251701
9.54245472	0.313346922	-45.4656944
9.74292278	0.313344568	-45.4437675
9.94374275	0.31335336	-45.5248642
10.1452599	0.313383371	-45.8010292
10.3456211	0.313377172	-45.7441902
10.5458965	0.313368648	-45.6658669
10.746192	0.313361079	-45.5958443
10.9473667	0.3133789	-45.7602654
11.1482964	0.313389242	-45.855278
11.3488302	0.313388258	-45.8463631
11.5494289	0.313389093	-45.8539772
11.7497349	0.313382089	-45.7893944
11.9500427	0.313375324	-45.7272568
12.1505852	0.313374877	-45.7229805
12.3510246	0.313371837	-45.6950188
12.5511627	0.313361347	-45.5984573
12.7514191	0.313354075	-45.5314369
12.9521351	0.313358217	-45.5696373
13.1531363	0.313368976	-45.6686287
13.3541117	0.313378811	-45.7591515
13.5543699	0.313371778	-45.6943245
13.7550535	0.313374639	-45.7208824
13.9559641	0.313382506	-45.7932625
14.1561308	0.313373655	-45.7119102
14.3561802	0.313362569	-45.6095619
14.5567112	0.313362122	-45.6055984
14.7575874	0.313369006	-45.6689453
14.9586172	0.31337893	-45.7602005
15.1598253	0.313392282	-45.8832588
15.3603954	0.313392252	-45.8832054
15.5601788	0.313376397	-45.7369118
15.7606192	0.313373983	-45.7146378
15.96136	0.313377559	-45.74786
16.1616898	0.313373059	-45.7062988
16.362011	0.313368499	-45.6643257
16.5624466	0.313366264	-45.6435165
16.763588	0.313377202	-45.744606
16.9644794	0.313383281	-45.8005295
17.1643791	0.313371152	-45.6887321
17.3645344	0.31336391	-45.6218567
17.5653954	0.313369364	-45.6724091
17.7665062	0.313379169	-45.7625122
17.9674282	0.313385427	-45.8201447
18.1678028	0.313382119	-45.7897148
18.3686943	0.313387722	-45.8412476
18.5689182	0.31338191	-45.787796
18.7692566	0.313378096	-45.7527313
18.9702587	0.313385367	-45.8197136
19.1712475	0.313392311	-45.8834496
19.3718243	0.313392401	-45.8842697
19.5722752	0.313390434	-45.866291
19.7723904	0.313383281	-45.8002205
19.972847	0.313381553	-45.7844391
20.1736526	0.313385278	-45.8189507
20.374485	0.313389391	-45.856636
20.5752411	0.313392252	-45.8829193
20.7755394	0.313388109	-45.8449249
20.9762745	0.313390583	-45.8677177
21.1772194	0.313396156	-45.9189034
21.3769512	0.313383847	-45.8054695
21.5767555	0.313372761	-45.7035828
21.7776852	0.313378096	-45.7525673
21.9789963	0.313388765	-45.850872
22.1800404	0.31339553	-45.9130402
22.380558	0.313394725	-45.9056358
22.580698	0.313388735	-45.8506203
22.7807331	0.313381374	-45.7829132
22.9814968	0.313384116	-45.8079758
23.1829872	0.313396603	-45.9231224
23.3845825	0.313410252	-46.0488396
23.5858746	0.3134197	-46.1356659
23.7866325	0.313421905	-46.1561623
23.9869232	0.313418031	-46.1205101
24.1873989	0.31341657	-46.1069984
24.3876324	0.31341204	-46.065239
24.5877361	0.313405931	-46.009079
24.7882652	0.313405275	-46.002964
24.9893532	0.313411653	-46.0615425
25.1906738	0.313420832	-46.146244
25.3913498	0.313421905	-46.1559982
25.591589	0.313417614	-46.1165123
25.7918415	0.31341356	-46.0791473
25.9926167	0.313415825	-46.1002045
26.1940002	0.313425362	-46.1880798
26.395319	0.313433975	-46.2672386
26.5957222	0.31343171	-46.2462311
26.7963505	0.313432068	-46.2497101
26.9965248	0.31342721	-46.2048492
27.1972542	0.31342876	-46.2193146
27.3981533	0.313432276	-46.251358
27.5987053	0.31343174	-46.2465324
27.7992134	0.313430727	-46.2373161
27.9990101	0.313421786	-46.1549339
28.1986504	0.313411236	-46.0578308
28.399725	0.31341666	-46.1076965
28.6015339	0.313430041	-46.2311134
28.8028164	0.313437521	-46.3000183
29.0030212	0.31343326	-46.260601
29.204834	0.313446313	-46.3808441
29.4041576	0.313432634	-46.2550087
29.6036568	0.313421011	-46.1477242
29.8052711	0.31343177	-46.2469711
30.0068073	0.313441634	-46.337677
30.2077522	0.313445181	-46.3702774
30.4084587	0.313446224	-46.3799324
30.6090374	0.313445926	-46.3773804
30.809866	0.31344822	-46.3983345
31.0107288	0.313450783	-46.4219017
31.211132	0.313448727	-46.4030647
31.4120178	0.313451499	-46.4286575
31.6139011	0.313464165	-46.5452385
31.8139019	0.313458085	-46.4890518
32.0140228	0.313453257	-46.4448242
32.215992	0.313466489	-46.5666046
32.4160423	0.313461006	-46.5160294
32.6170616	0.31346485	-46.5516319
32.8186302	0.31347397	-46.6353264
33.0200729	0.313481748	-46.7071342
33.2207947	0.313482612	-46.7151489
33.4217339	0.313485503	-46.7417908
33.6221581	0.313483596	-46.7241745
33.822567	0.313481569	-46.70541
34.0240936	0.313489825	-46.7815361
34.2247505	0.313490003	-46.7832756
34.4246254	0.313483119	-46.7198372
34.6249504	0.313480407	-46.694725
34.8246536	0.313472092	-46.618103
35.0259094	0.313477755	-46.6703758
35.2281761	0.313492328	-46.8046761
35.4297066	0.313500255	-46.8775291
35.6305504	0.313502014	-46.8939171
35.830864	0.313499182	-46.8675842
36.0302238	0.313488066	-46.7653999
36.2301102	0.313481599	-46.7058678
36.4309731	0.313483626	-46.7242813
36.6315422	0.313483089	-46.7195015
36.8331833	0.313491732	-46.7989464
37.0359688	0.313509911	-46.9665146
37.2372932	0.313515633	-47.0191078
37.4377861	0.313514322	-47.0070038
37.6388626	0.313517898	-47.0398216
37.8406219	0.313527048	-47.1243896
38.041935	0.313532472	-47.1742935
38.2421837	0.313529074	-47.1429062
38.4428558	0.313529193	-47.1439857
38.644474	0.313536942	-47.2154427
38.8467522	0.313550025	-47.3357277
39.0486259	0.313559651	-47.4246902
39.2492142	0.313558936	-47.4180298
39.4497528	0.313557833	-47.4077072
39.6511917	0.313563854	-47.4630547
39.8535957	0.313577414	-47.5882187
40.0559502	0.313590437	-47.7080116
40.2578735	0.313599974	-47.7958221
40.4598885	0.313610166	-47.8895683
40.6608505	0.313612103	-47.9075623
40.86063	0.313604951	-47.8415833
41.0609932	0.313602328	-47.8174171
41.2630844	0.313612849	-47.9143333
41.4661789	0.313630879	-48.080265
41.6675529	0.313635737	-48.1251831
41.87043	0.31365186	-48.2736092
42.0748711	0.313679487	-48.527977
42.2793121	0.313706845	-48.7799072
42.4824066	0.313723952	-48.9376068
42.6834717	0.313726038	-48.9566498
42.8830223	0.313717037	-48.8737221
43.0865517	0.313737035	-49.058033
43.2883377	0.313744247	-49.1244316
43.4914284	0.313760787	-49.2765884
43.6993408	0.313811839	-49.7467499
43.9080238	0.313867927	-50.2631187
44.1151962	0.313912719	-50.6757431
44.3170929	0.313919753	-50.7405052
44.5488129	0.314137012	-52.7410698
44.7808647	0.314354658	-54.7452927
45.0132332	0.314572573	-56.7519569
-35.7600632	0.113377362	-60.1087608
-35.542057	0.113324918	-58.7672882
-35.3210564	0.113262296	-57.1653328
-35.1006889	0.113200963	-55.5965767
-34.8859596	0.113157235	-54.4779816
-34.6728401	0.113118246	-53.4807129
-34.4639206	0.113092594	-52.824482
-34.2564621	0.113071442	-52.2837219
-34.0511703	0.113057241	-51.9204407
-33.8477554	0.113049142	-51.7133942
-33.6432152	0.113037184	-51.4073067
-33.4364357	0.113017477	-50.9031601
-33.2268143	0.112987898	-50.1466637
-33.0193176	0.112965219	-49.5665932
-32.8089294	0.112932295	-48.7244034
-32.6030159	0.112914495	-48.2689095
-32.3980637	0.112899803	-47.8932419
-32.1928635	0.112884052	-47.4904747
-31.9888191	0.112872191	-47.186821
-31.7860775	0.1128648	-46.9979095
-31.5836163	0.112858333	-46.8324318
-31.3822117	0.112855569	-46.7616768
-31.1805954	0.112852	-46.6704826
-30.9793739	0.112849839	-46.6151085
-30.7770329	0.112843536	-46.4540939
-30.5764141	0.112843521	-46.4534035
-30.3740234	0.112836882	-46.283844
-30.1712456	0.112828739	-46.0754738
-29.9702892	0.112827346	-46.0396957
-29.7700977	0.112828821	-46.0776482
-29.5701332	0.112831183	-46.1380577
-29.3692913	0.112830229	-46.1135139
-29.1674862	0.112825505	-45.9927826
-28.9651642	0.112818703	-45.8188286
-28.7643108	0.112817585	-45.7901344
-28.5643749	0.112820067	-45.8535461
-28.3648224	0.11282412	-45.9571686
-28.1637077	0.112821966	-45.9021797
-27.9648724	0.11282897	-46.0813065
-27.7664337	0.11283768	-46.3043098
-27.5649853	0.112834215	-46.2156296
-27.3630009	0.112828478	-46.0688477
-27.1620579	0.112826988	-46.0307007
-26.9639034	0.112837136	-46.2903976
-26.7633858	0.112837501	-46.2993698
-26.5647373	0.112845786	-46.5114555
-26.3676529	0.112860903	-46.8981705
-26.1673908	0.112862535	-46.9398575
-25.9671001	0.112864062	-46.9791756
-25.7664661	0.112864122	-46.9805794
-25.5734806	0.11289794	-47.8455467
-25.3713493	0.112891607	-47.6837006
-25.1704903	0.112890884	-47.6650848
-24.9720402	0.112901039	-47.9248543
-24.772665	0.112907127	-48.0806236
-24.5741463	0.112917267	-48.3399048
-24.3757839	0.112928279	-48.6216431
-24.1767597	0.1129364	-48.8292427
-23.9773827	0.112942994	-48.9979515
-23.7792149	0.112955444	-49.3163109
-23.5789814	0.112958185	-49.3867073
-23.3789806	0.112962134	-49.4875488
-23.1729107	0.112936549	-48.8333588
-22.9677773	0.112915128	-48.2852898
-22.7615547	0.112887919	-47.5891075
-22.561285	0.112890035	-47.6433907
-22.3630142	0.112902254	-47.9559669
-22.1617222	0.112899318	-47.8808556
-21.9583015	0.112885393	-47.5245056
-21.7539291	0.112866238	-47.0348587
-21.5511055	0.112854883	-46.7440071
-21.1481876	0.112846039	-46.5181084
-20.9463844	0.112839632	-46.3542023
-20.7461338	0.112841561	-46.4033585
-20.5462761	0.112845674	-46.5087357
-20.3443718	0.112838522	-46.3257904
-20.1441746	0.112840779	-46.383564
-19.9435596	0.112840734	-46.3824272
-19.7421513	0.112836152	-46.265152
-19.5408058	0.112831846	-46.1547852
-19.3401737	0.112831593	-46.1483498
-19.1402206	0.112835333	-46.2442093
-18.9403992	0.11283996	-46.3625259
-18.739706	0.112839423	-46.3485909
-18.5381908	0.112833872	-46.2066612
-18.3373299	0.112832226	-46.1646538
-18.1365147	0.112830825	-46.1289215
-17.9358177	0.11283014	-46.1113281
-17.7349072	0.112828076	-46.0585785
-17.5337124	0.112824157	-45.9582214
-17.3335018	0.112826541	-46.0192375
-17.1331749	0.112828203	-46.0617027
-16.9329243	0.112830423	-46.1185684
-16.7322769	0.112830013	-46.1080551
-16.5311661	0.112826444	-46.0167313
-16.3303471	0.11282479	-45.9745522
-16.1297684	0.112824783	-45.9740448
-15.927906	0.112815678	-45.7414398
-15.7266588	0.112810746	-45.6152039
-15.5259352	0.112809509	-45.5835228
-15.3250151	0.112806797	-45.5139961
-15.1248045	0.112809286	-45.5779457
-14.924098	0.112808101	-45.5474815
-14.723464	0.112807445	-45.5306931
-14.523653	0.112813152	-45.676815
-14.3233871	0.112815447	-45.7354622
-14.1224918	0.11281278	-45.66716
-13.9219694	0.112813041	-45.6740532
-13.7214794	0.112813599	-45.6880951
-13.5210571	0.112814732	-45.7169571
-13.3203821	0.112813741	-45.6916962
-13.1200762	0.112815909	-45.7471695
-12.9195642	0.112816349	-45.7585297
-12.7186584	0.112813301	-45.6805305
-12.5174561	0.112807475	-45.5314903
-12.316124	0.112800278	-45.347538
-12.1157713	0.112801984	-45.3908768
-11.9165602	0.112814516	-45.7115593
-11.7162066	0.11281649	-45.7622223
-11.5156183	0.112816259	-45.7560768
-11.314867	0.112814374	-45.7078629
-11.1140308	0.11281155	-45.6357269
-10.9133615	0.112810351	-45.6051636
-10.7130423	0.112812802	-45.6678658
-10.5128155	0.112816326	-45.7580795
-10.3119917	0.112813488	-45.6852798
-10.1112099	0.112810969	-45.6210289
-9.91044331	0.112808548	-45.5589714
-9.70961189	0.11280527	-45.4749451
-9.50901699	0.112804636	-45.4590302
-9.30855656	0.112805627	-45.4841309
-9.10848713	0.112811498	-45.634304
-8.90814877	0.112814218	-45.7040863
-8.70746613	0.112812608	-45.6627808
-8.50673866	0.112810336	-45.6047058
-8.30632782	0.112812251	-45.6535606
-8.1053648	0.112806574	-45.5084953
-7.9045248	0.112802356	-45.4006157
-7.7042799	0.112806655	-45.5105057
-7.50363064	0.112805083	-45.4702492
-7.30296373	0.112803161	-45.4212036
-7.1025424	0.112805024	-45.4688416
-6.90196037	0.112804383	-45.4522667
-6.70137119	0.112803563	-45.4312973
-6.50084448	0.11280378	-45.4370117
-6.30062723	0.112809569	-45.5849876
-6.10036707	0.112814926	-45.7220535
-5.89989185	0.112816557	-45.7638283
-5.69930744	0.112816118	-45.752697
-5.49849844	0.112811051	-45.623085
-5.29779959	0.112807952	-45.5438385
-5.09712553	0.112805158	-45.4721642
-4.89654207	0.112804204	-45.4478493
-4.69598055	0.112803698	-45.435009
-4.4954071	0.112802871	-45.4136238
-4.29492998	0.112804472	-45.4548111
-4.09447432	0.112806834	-45.515213
-3.89381766	0.112803616	-45.4327965
-3.69315529	0.112799868	-45.3370209
-3.49261284	0.11279957	-45.3293076
-3.29220176	0.112803727	-45.4356804
-3.09183621	0.11281009	-45.5984497
-2.8913734	0.112813547	-45.6869278
-2.69080997	0.112813301	-45.6805077
-2.49030995	0.112815872	-45.746109
-2.28988647	0.112822674	-45.9203529
-2.08929968	0.112821966	-45.9022179
-1.88859451	0.112814024	-45.6990929
-1.68791747	0.112806089	-45.4961395
-1.48739266	0.112807564	-45.5339088
-1.28685105	0.112808019	-45.5453835
-1.08624446	0.112801887	-45.3885727
-0.885693073	0.112800017	-45.3407211
-0.685137093	0.112796284	-45.2453613
-0.484629571	0.112800762	-45.3598633
-0.284120351	0.112810872	-45.6184082
-0.0835666209	0.112809427	-45.581543
0.116979003	0.112805113	-45.4711914
0.317538857	0.112811312	-45.6296387
0.518131018	0.112819746	-45.845459
0.718661487	0.112813778	-45.6927719
0.919168413	0.112807527	-45.5328598
1.11970699	0.112806715	-45.5121078
1.320292	0.112810113	-45.5990944
1.52080619	0.112807356	-45.5285378
1.72131228	0.112804703	-45.4607391
1.92187345	0.112805851	-45.4898643
2.12243605	0.112806857	-45.5158119
2.32291198	0.112803482	-45.4293861
2.52347851	0.112804689	-45.4602203
2.72405148	0.112805992	-45.4934959
2.92454791	0.112804152	-45.4465218
3.12515569	0.112806566	-45.5083618
3.32584476	0.112811454	-45.6334343
3.52654243	0.112816066	-45.751255
3.72713757	0.112817064	-45.7769623
3.92767429	0.112816289	-45.7570839
4.12815094	0.112813942	-45.6970978
4.32872534	0.112814374	-45.7079849
4.52925158	0.11281357	-45.6873779
4.72963428	0.112809405	-45.5808334
4.92997789	0.112804681	-45.4601288
5.13056564	0.112805679	-45.4856644
5.33113956	0.112806328	-45.5021629
5.53176165	0.112807915	-45.5425911
5.73219824	0.112805724	-45.4868279
5.93277025	0.112806268	-45.5006447
6.13325834	0.112805232	-45.4742508
6.33358335	0.112801366	-45.3752747
6.53385639	0.112796836	-45.2592773
6.73455429	0.112799682	-45.3322487
6.93533468	0.112803705	-45.4349327
7.13575506	0.11280182	-45.3868103
7.33603144	0.112797819	-45.2844849
7.53648472	0.112796679	-45.2554054
7.73726463	0.112800352	-45.3493729
7.9379406	0.112802371	-45.4011765
8.13853836	0.112803191	-45.422142
8.3388834	0.112800598	-45.3554649
8.53935051	0.112799697	-45.332489
8.74021149	0.112803936	-45.4409294
8.94121647	0.112809792	-45.5908775
9.14186764	0.112811036	-45.6225891
9.3420887	0.112807021	-45.5198479
9.54223728	0.112802327	-45.4000206
9.74258232	0.112800114	-45.3431816
9.94310284	0.11279995	-45.339077
10.1439066	0.11280296	-45.4160233
10.3448868	0.112807781	-45.53936
10.5451508	0.112804763	-45.4620094
10.7452459	0.112800062	-45.341938
10.9462719	0.112805136	-45.4716949
11.14709	0.112807922	-45.543026
11.3478041	0.112809576	-45.5853806
11.548378	0.112809815	-45.5912819
11.7489223	0.112809747	-45.5896912
11.9495687	0.112810649	-45.6127548
12.1499891	0.112809427	-45.5813789
12.3501339	0.112805739	-45.4870148
12.5506287	0.112805292	-45.4756546
12.7514849	0.112808049	-45.5463295
12.9517117	0.112805277	-45.475399
13.1519737	0.112802863	-45.4135056
13.3534241	0.11281056	-45.6104698
13.5540209	0.11281094	-45.6201096
13.7546625	0.11281167	-45.6388512
13.9552813	0.112812191	-45.6521492
14.1551962	0.11280708	-45.5214806
14.3551865	0.112802714	-45.4098549
14.5557747	0.112803116	-45.4199829
14.7565393	0.112804838	-45.4641151
14.9573498	0.112806857	-45.5158157
15.1584587	0.112811044	-45.6229362
15.3585501	0.112807669	-45.5365295
15.5591965	0.112808384	-45.5547867
15.7603016	0.112812363	-45.6565361
15.9607143	0.112811372	-45.6311607
16.1609955	0.112809457	-45.5822792
16.3613949	0.112808414	-45.5556831
16.5618935	0.112808086	-45.5470848
16.7629166	0.11281129	-45.6291313
16.9634895	0.112811416	-45.6323204
17.1633415	0.112806797	-45.5141754
17.3634949	0.112804249	-45.4490089
17.5642681	0.112805746	-45.4873543
17.7651405	0.112807833	-45.5405922
17.9662971	0.112811662	-45.638752
18.167099	0.112813197	-45.6778297
18.3677979	0.112814084	-45.7003784
18.5678673	0.112811103	-45.6244698
18.7679348	0.112808183	-45.5496101
18.9686565	0.112809218	-45.5760651
19.1695194	0.112811051	-45.6231995
19.3702946	0.112812355	-45.6564903
19.5708675	0.112812445	-45.6587753
19.7714634	0.112812683	-45.6647263
19.9725285	0.112815559	-45.7382965
20.1736908	0.112818934	-45.8245659
20.3744354	0.11281991	-45.849556
20.5745163	0.112817235	-45.7812881
20.774538	0.1128143	-45.7060127
20.974823	0.112812817	-45.6680145
21.1760559	0.112816416	-45.7602158
21.3762589	0.112814531	-45.7119637
21.5757046	0.112808704	-45.5629616
21.7770767	0.112812966	-45.6720047
21.9784508	0.112817161	-45.7793388
22.1794491	0.112819374	-45.8358955
22.3798275	0.11281842	-45.8113976
22.5799809	0.112816356	-45.7588272
22.780014	0.112813741	-45.6918526
22.9806499	0.112814136	-45.7017784
23.181982	0.112817891	-45.7978821
23.3833599	0.112821795	-45.8979645
23.5845737	0.112824872	-45.9764938
23.7849178	0.112823762	-45.9481621
23.9850731	0.112821795	-45.8980331
24.185791	0.112822473	-45.9151115
24.3861294	0.112821385	-45.8872681
24.5867271	0.112821512	-45.8906746
24.7873154	0.112821586	-45.8923721
24.988142	0.112822719	-45.9216576
25.1892128	0.112824962	-45.9787712
25.3900185	0.112825975	-46.0046387
25.5901756	0.112824112	-45.9570923
25.7903652	0.112822421	-45.9138718
25.9914665	0.112824723	-45.9726944
26.1927471	0.112827741	-46.0499001
26.3939228	0.112830274	-46.1146584
26.5949631	0.112832189	-46.1637154
26.7947083	0.112828627	-46.0727158
26.9952259	0.112828366	-46.0659409
27.1966496	0.112831853	-46.1551094
27.3978119	0.1128342	-46.2152252
27.5981598	0.112833194	-46.1894073
27.7979069	0.11282976	-46.1015816
27.9971695	0.112824425	-45.9651756
28.197094	0.112821825	-45.8986588
28.3981647	0.112823792	-45.9490128
28.5998554	0.112828203	-46.0616875
28.801096	0.112830788	-46.1276627
29.0013161	0.112829342	-46.0909309
29.2024441	0.112831436	-46.1445274
29.4027367	0.112830304	-46.115612
29.6027126	0.112827972	-46.055687
29.8043842	0.112832084	-46.1610413
30.0056877	0.112834774	-46.2300148
30.2065582	0.11283581	-46.2562714
30.4073582	0.112836555	-46.275444
30.6079884	0.112836674	-46.2785072
30.8087406	0.11283724	-46.2928696
31.0094604	0.112837672	-46.3039894
31.2095184	0.112835713	-46.2539024
31.4103642	0.112836592	-46.2764969
31.6124744	0.112842008	-46.414875
31.8126469	0.112840466	-46.3752899
32.0126266	0.112838253	-46.3188553
32.2137108	0.112839952	-46.3622704
32.4138527	0.112838343	-46.3209724
32.6150818	0.112840496	-46.3763504
32.8163528	0.112842791	-46.4349022
33.0179062	0.112846039	-46.5179367
33.2196159	0.112849742	-46.6126175
33.420517	0.112850688	-46.6369896
33.6214142	0.112851605	-46.6604576
33.8214874	0.112849765	-46.6133728
34.0222511	0.112850234	-46.6252975
34.2229538	0.112850495	-46.6319199
34.4232826	0.112849526	-46.607296
34.6233444	0.112847708	-46.5606995
34.8230934	0.112844899	-46.4889603
35.0248604	0.112848617	-46.5839577
35.2274857	0.112855032	-46.7480392
35.4289284	0.112857617	-46.8142281
35.6292038	0.11285647	-46.7847939
35.8288841	0.112853475	-46.7081718
36.0287514	0.112851098	-46.6474915
36.2284279	0.11284814	-46.571846
36.4293633	0.112849124	-46.5968475
36.6309166	0.112851992	-46.6701889
36.8339653	0.112859413	-46.860218
37.0363159	0.112864636	-46.9936142
37.2367439	0.112863958	-46.9763832
37.4364471	0.112861127	-46.9037399
37.637558	0.112862527	-46.9397316
37.8397865	0.112867251	-47.0606728
38.0411263	0.112869292	-47.1127739
38.2417221	0.112869114	-47.108242
38.4426537	0.112869918	-47.1286049
38.6437912	0.112871312	-47.1644249
38.8452644	0.112873688	-47.2250671
39.0475273	0.1128783	-47.343399
39.2487831	0.112879977	-47.3860512
39.4491234	0.112879016	-47.3615685
39.6502457	0.112880297	-47.3942108
39.8525696	0.112884961	-47.5137634
40.0546074	0.112888783	-47.6113396
40.2567787	0.112892926	-47.7172165
40.4592628	0.11289791	-47.8448944
40.6606598	0.11289984	-47.8941345
40.8603287	0.112896957	-47.820343
41.061451	0.112898096	-47.8493958
41.2624207	0.112898804	-47.8677101
41.463192	0.112898991	-47.8722763
41.6659355	0.112904496	-48.013134
41.869091	0.112911068	-48.1813316
42.0723038	0.112917729	-48.3517265
42.2755089	0.1129243	-48.5199242
42.4783821	0.112929933	-48.6639557
42.6800232	0.11293225	-48.7232742
42.8823013	0.112936229	-48.8250732
43.0849762	0.112941213	-48.9523315
43.2887573	0.112949036	-49.152504
43.4958038	0.112965249	-49.5673256
43.7018547	0.112978756	-49.9129906
43.9053917	0.112985678	-50.0898018
44.1093788	0.112993672	-50.2944374
44.3171616	0.113011286	-50.7448959
44.5331955	0.113049671	-51.7267876
-35.7531738	-0.0881654099	-59.550209
-35.5338211	-0.0881211832	-58.0957069
-35.3122139	-0.0880708396	-56.4400444
-35.0911827	-0.0880213454	-54.8124542
-34.8783722	-0.0879920349	-53.8486328
-34.667614	-0.087967582	-53.0444641
-34.4622154	-0.0879565403	-52.6811829
-34.254097	-0.0879383832	-52.0840302
-34.0480804	-0.0879254267	-51.6580048
-33.843895	-0.0879170746	-51.3833389
-33.6370506	-0.0879016891	-50.8773117
-33.4271469	-0.0878780633	-50.100235
-33.2187424	-0.0878581181	-49.4443169
-33.0084686	-0.087832965	-48.6169472
-32.8019676	-0.087817587	-48.1114082
-32.5968895	-0.0878058672	-47.725975
-32.3930168	-0.0877972767	-47.4433174
-32.1873474	-0.0877836645	-46.9956322
-31.9852104	-0.0877795741	-46.8611603
-31.7830086	-0.0877752602	-46.7191162
-31.5811195	-0.0877717584	-46.6041756
-31.3802509	-0.0877710655	-46.5812645
-31.1791344	-0.0877696648	-46.5352364
-30.9773617	-0.087766394	-46.4276161
-30.775856	-0.0877638385	-46.34375
-30.5730095	-0.0877573937	-46.1318855
-30.3708477	-0.0877528414	-45.9821053
-30.1687908	-0.0877485424	-45.8406219
-29.9674091	-0.0877461657	-45.7623672
-29.7675877	-0.0877483487	-45.8342514
-29.5685997	-0.0877530351	-45.9884071
-29.3671532	-0.0877504498	-45.9033203
-29.1643982	-0.0877438858	-45.6873779
-28.9620533	-0.0877384543	-45.5087852
-28.7604713	-0.0877352953	-45.4048996
-28.5617714	-0.0877409428	-45.5906181
-28.3613968	-0.0877414867	-45.608551
-28.1610985	-0.0877422839	-45.6348572
-27.961689	-0.0877458677	-45.7527084
-27.7616062	-0.0877473876	-45.8026237
-27.5593777	-0.0877420977	-45.6284981
-27.3587074	-0.0877417102	-45.6159859
-27.1601715	-0.0877482295	-45.8302727
-26.9611797	-0.0877533555	-45.9989052
-26.7609558	-0.0877545178	-46.0371704
-26.5611515	-0.0877570957	-46.1218262
-26.3611641	-0.0877590999	-46.1877518
-26.1598873	-0.0877567977	-46.112011
-25.9585285	-0.08775419	-46.0263329
-25.7621574	-0.0877685174	-46.4976883
-25.5628319	-0.0877729431	-46.6431999
-25.3624687	-0.0877738521	-46.6729965
-25.1613712	-0.0877722055	-46.6189842
-24.9620609	-0.0877768248	-46.7708473
-24.7614117	-0.0877767578	-46.7686615
-24.5623474	-0.0877823755	-46.9532356
-24.3627739	-0.0877862275	-47.0799522
-24.1642284	-0.0877938792	-47.3317375
-23.9665947	-0.0878050253	-47.6981888
-23.7668915	-0.0878086984	-47.8190498
-23.5687885	-0.0878183916	-48.1377258
-23.3645916	-0.0878053606	-47.7092857
-23.1614132	-0.0877959579	-47.4000549
-22.9550915	-0.0877743736	-46.6901283
-22.7530899	-0.0877690613	-46.5154114
-22.5544567	-0.0877767876	-46.7693939
-22.353817	-0.0877767503	-46.7682571
-22.1539078	-0.0877796188	-46.8625755
-21.9510555	-0.087770775	-46.5716515
-21.7499218	-0.0877686888	-46.5031357
-21.5487061	-0.0877662376	-46.4224815
-21.3472061	-0.0877625719	-46.3019638
-21.1464405	-0.0877618939	-46.2795868
-20.944561	-0.087756522	-46.1029892
-20.7450752	-0.0877611786	-46.2561455
-20.5453568	-0.0877649337	-46.3795891
-20.343626	-0.0877600834	-46.2200813
-20.1428337	-0.0877592042	-46.1914291
-19.9412651	-0.0877549201	-46.0504036
-19.7402573	-0.0877530277	-45.9883041
-19.5394115	-0.0877518281	-45.9487381
-19.3390427	-0.0877527595	-45.9794083
-19.1391277	-0.0877557993	-46.0794144
-18.9383984	-0.0877551362	-46.0575981
-18.7358017	-0.0877457038	-45.7472878
-18.5351028	-0.0877450556	-45.7259598
-18.3351498	-0.0877479613	-45.8216438
-18.1349297	-0.0877496377	-45.8767281
-17.9345589	-0.0877506137	-45.9086952
-17.7333164	-0.0877472982	-45.7997932
-17.5321827	-0.0877444595	-45.7062721
-17.3319035	-0.0877458826	-45.7531281
-17.1315327	-0.0877468511	-45.7850952
-16.9311333	-0.087747708	-45.8131523
-16.7306747	-0.0877482742	-45.8316917
-16.5293999	-0.0877445191	-45.7083855
-16.3286209	-0.0877433345	-45.6693802
-16.1277847	-0.0877418146	-45.6193161
-15.9268208	-0.0877395496	-45.5449104
-15.7256565	-0.0877361	-45.4313698
-15.5251217	-0.0877361298	-45.4323997
-15.3248968	-0.0877379403	-45.4917793
-15.1243143	-0.0877377167	-45.4844398
-14.9231434	-0.0877340212	-45.362915
-14.7228966	-0.0877357349	-45.4193649
-14.522892	-0.0877389684	-45.525692
-14.3222237	-0.0877382234	-45.501091
-14.121253	-0.087735571	-45.41399
-13.9204769	-0.0877340734	-45.364727
-13.7201672	-0.0877355114	-45.4119759
-13.5195351	-0.0877349079	-45.3922539
-13.3192205	-0.0877363607	-45.439991
-13.1188097	-0.0877372324	-45.4686089
-12.9180784	-0.0877359509	-45.4265022
-12.7173138	-0.0877344012	-45.3753586
-12.5163727	-0.0877315551	-45.2817383
-12.3158331	-0.0877314806	-45.2794228
-12.11555	-0.0877332687	-45.3381462
-11.9160461	-0.0877408385	-45.5870476
-11.7154016	-0.0877401307	-45.5639839
-11.5144329	-0.0877369344	-45.4589577
-11.3137445	-0.0877357945	-45.4214897
-11.1129704	-0.0877339467	-45.3605804
-10.9125309	-0.0877347067	-45.385685
-10.7123852	-0.087737903	-45.4908638
-10.5120153	-0.0877393559	-45.5385971
-10.3113575	-0.0877384171	-45.5077934
-10.1106081	-0.0877366439	-45.449398
-9.90983009	-0.0877345502	-45.3805084
-9.70903587	-0.0877322108	-45.3035583
-9.50851822	-0.08773233	-45.3074188
-9.30810165	-0.0877334177	-45.3432655
-9.107728	-0.0877349451	-45.3935852
-8.90712643	-0.0877343193	-45.3727875
-8.70670128	-0.0877354294	-45.4093628
-8.50625038	-0.0877363309	-45.4389343
-8.3056469	-0.0877356604	-45.4169884
-8.10484505	-0.0877328143	-45.3234367
-7.90415668	-0.0877310783	-45.2663383
-7.7037673	-0.0877326652	-45.318367
-7.50324249	-0.0877327472	-45.3210793
-7.30270004	-0.0877326205	-45.3169556
-7.10229445	-0.0877341703	-45.3680115
-6.90168476	-0.0877332315	-45.3370323
-6.70107508	-0.0877322182	-45.3038559
-6.50060081	-0.0877329782	-45.3288574
-6.30025244	-0.0877355486	-45.4133606
-6.09978342	-0.0877365544	-45.4463463
-5.89927864	-0.0877370834	-45.4637794
-5.69879389	-0.0877379552	-45.4924431
-5.49825287	-0.0877380073	-45.4941788
-5.29767799	-0.0877375007	-45.4774361
-5.09708643	-0.0877366662	-45.4499474
-4.89650393	-0.0877359137	-45.4253883
-4.69591379	-0.08773496	-45.3939934
-4.49536419	-0.0877347216	-45.3860359
-4.29485989	-0.0877353773	-45.407692
-4.09434557	-0.0877358839	-45.4243927
-3.89360881	-0.0877314359	-45.2780113
-3.69307303	-0.0877312794	-45.2728119
-3.49258161	-0.0877322108	-45.3034286
-3.29216123	-0.0877351537	-45.40028
-3.0917232	-0.0877379701	-45.492981
-2.89118648	-0.087738201	-45.5004044
-2.69060063	-0.087736845	-45.4558983
-2.49017072	-0.0877407715	-45.5849762
-2.28965044	-0.0877419189	-45.6227455
-2.0890317	-0.0877391547	-45.5318565
-1.88844061	-0.0877370909	-45.4639854
-1.68781149	-0.0877325609	-45.3149872
-1.48728836	-0.0877330601	-45.3315163
-1.28674448	-0.0877323002	-45.3063698
-1.08619261	-0.0877306089	-45.2508774
-0.885668457	-0.0877308995	-45.2603989
-0.685123682	-0.0877287313	-45.1889648
-0.484615594	-0.0877313912	-45.2766113
-0.284101665	-0.087736018	-45.4287109
-0.0835615247	-0.0877353176	-45.4057617
0.116973355	-0.0877330676	-45.3317871
0.317523241	-0.0877378136	-45.487793
0.518066883	-0.0877378285	-45.4882812
0.718591571	-0.0877355114	-45.4120102
0.919114649	-0.0877340585	-45.3641586
1.11965024	-0.0877341107	-45.3658676
1.32021749	-0.087736249	-45.4362526
1.52072406	-0.0877343193	-45.372776
1.72118998	-0.0877307579	-45.255661
1.92169309	-0.0877296478	-45.2191124
2.12227321	-0.0877319351	-45.2943802
2.32278991	-0.0877314284	-45.2777786
2.52343512	-0.0877354667	-45.4106598
2.72401476	-0.0877368078	-45.4546776
2.92444849	-0.0877335742	-45.3483772
3.1249845	-0.0877336338	-45.3504028
3.32569528	-0.0877382904	-45.5035515
3.52635264	-0.0877411067	-45.5959816
3.72694278	-0.0877420157	-45.6260834
3.92734337	-0.0877386108	-45.5139236
4.12777138	-0.0877361149	-45.4319611
4.3283186	-0.0877362639	-45.4367447
4.52896357	-0.0877382979	-45.5037842
4.72947359	-0.0877376571	-45.4826889
4.92987394	-0.0877351165	-45.3990211
5.1303339	-0.0877337903	-45.3555374
5.33090448	-0.0877343863	-45.3749657
5.53140831	-0.0877338797	-45.3585091
5.731884	-0.0877329707	-45.3286247
5.93244505	-0.0877333954	-45.3424416
6.13299847	-0.087733686	-45.3519363
6.33343601	-0.0877323523	-45.308136
6.5337925	-0.0877300054	-45.230957
6.73442841	-0.0877314433	-45.2782936
6.93488979	-0.0877305791	-45.2498741
7.13535357	-0.0877298042	-45.2244568
7.33560562	-0.0877265409	-45.1170082
7.53599882	-0.087725088	-45.0693703
7.73672295	-0.0877274647	-45.1474686
7.93733978	-0.0877285302	-45.1825981
8.13787842	-0.087728709	-45.1882553
8.33836079	-0.0877282917	-45.1745567
8.53889847	-0.0877284408	-45.179657
8.73969364	-0.0877311826	-45.2697906
8.94053459	-0.0877342522	-45.3706627
9.14107037	-0.0877342597	-45.3708801
9.34146881	-0.0877329707	-45.3284454
9.5419302	-0.0877323151	-45.307003
9.74225044	-0.0877304226	-45.2447929
9.94252205	-0.0877281651	-45.17062
10.1429949	-0.0877277479	-45.1567497
10.3440523	-0.0877323002	-45.3064499
10.5445805	-0.0877322778	-45.3057632
10.7447739	-0.0877295211	-45.215229
10.9454441	-0.0877306834	-45.2534332
11.1462393	-0.0877327994	-45.3228111
11.3468742	-0.0877335891	-45.3488083
11.547472	-0.0877340809	-45.3649673
11.7481451	-0.087735109	-45.3987732
11.948698	-0.0877352282	-45.4025536
12.1489172	-0.0877329186	-45.3267403
12.3492794	-0.087731719	-45.2873077
12.5498695	-0.0877321437	-45.3010979
12.7505493	-0.087733157	-45.3346596
12.9510946	-0.0877332613	-45.3379517
13.1511602	-0.087730132	-45.2350426
13.3525476	-0.087735787	-45.4210205
13.5533504	-0.0877375007	-45.4772873
13.7538214	-0.0877370387	-45.4623413
13.9542246	-0.087736167	-45.4336472
14.1543589	-0.0877336487	-45.3508301
14.3546181	-0.0877319723	-45.2956009
14.5549612	-0.0877308473	-45.258606
14.7553911	-0.0877302662	-45.2395096
14.9563417	-0.0877327546	-45.3212395
15.1567841	-0.0877322331	-45.3040962
15.3574419	-0.0877329633	-45.3282814
15.5581503	-0.0877339542	-45.3606949
15.7597265	-0.0877397433	-45.5513115
15.9597216	-0.0877367184	-45.4517212
16.1603603	-0.0877372324	-45.4687538
16.3610573	-0.0877380669	-45.4961166
16.5615673	-0.0877378955	-45.4904442
16.7623749	-0.0877392739	-45.5358696
16.9626827	-0.0877380371	-45.4951172
17.1625156	-0.0877344012	-45.3755074
17.36273	-0.087732777	-45.3220558
17.563282	-0.0877328739	-45.3252487
17.7642479	-0.0877350122	-45.3955765
17.9656715	-0.0877393484	-45.5381699
18.166132	-0.0877389237	-45.5242691
18.3667336	-0.0877391919	-45.5331459
18.5669765	-0.087737754	-45.4858017
18.7668915	-0.087734811	-45.3889694
18.9675522	-0.0877353773	-45.4077835
19.168354	-0.0877365917	-45.4476662
19.369276	-0.0877383277	-45.5046387
19.5697651	-0.0877380744	-45.4964256
19.770483	-0.0877388418	-45.5216637
19.9718037	-0.0877422467	-45.633564
20.173315	-0.0877464116	-45.7706108
20.3738346	-0.0877462327	-45.7645988
20.573637	-0.0877429917	-45.6580009
20.7734413	-0.0877398103	-45.5534286
20.9738159	-0.0877390876	-45.5295906
21.1748238	-0.087740995	-45.5922508
21.3756351	-0.0877420753	-45.627739
21.5754414	-0.0877390355	-45.5278053
21.7765102	-0.0877411366	-45.5970535
21.9774551	-0.0877427086	-45.6487274
22.1781464	-0.0877432451	-45.6664658
22.3786087	-0.08774288	-45.6544228
22.5789833	-0.0877421796	-45.6313896
22.7793083	-0.0877413005	-45.6024971
22.9798889	-0.0877414122	-45.6060791
23.1811142	-0.0877439603	-45.6899757
23.3820686	-0.0877454355	-45.7385483
23.5828342	-0.0877462029	-45.7636108
23.7835808	-0.0877468735	-45.7858162
23.9842472	-0.0877472684	-45.7986717
24.1849403	-0.0877477154	-45.813549
24.3851414	-0.0877464041	-45.7703285
24.5858631	-0.0877469778	-45.7891159
24.786581	-0.0877475142	-45.8069267
24.987505	-0.0877487734	-45.8481712
25.1886139	-0.0877506584	-45.9101715
25.3891468	-0.0877505168	-45.9055214
25.5890198	-0.0877481177	-45.8267288
25.7896481	-0.0877483338	-45.8337975
25.9907303	-0.0877500698	-45.8909111
26.1915264	-0.0877508223	-45.9153862
26.3924065	-0.0877518356	-45.9488907
26.5935783	-0.0877538025	-46.0135765
26.7932529	-0.0877508372	-45.9159851
26.9939499	-0.087751247	-45.9294701
27.195713	-0.087755084	-46.055748
27.3967838	-0.0877566487	-46.1070747
27.5970135	-0.0877555013	-46.0695419
27.7969265	-0.0877533853	-45.9997787
27.9965744	-0.0877504572	-45.9036522
28.1965275	-0.0877485424	-45.8405571
28.3974571	-0.08774966	-45.8772392
28.5985508	-0.0877512619	-45.9301033
28.7996788	-0.0877529532	-45.9855804
29.00037	-0.0877532884	-45.9967003
29.2004547	-0.0877518058	-45.9480057
29.4011688	-0.087752223	-45.9615669
29.6024094	-0.0877541825	-46.0261497
29.8038311	-0.0877566561	-46.1075745
30.0046597	-0.0877573788	-46.1311455
30.2054825	-0.0877580568	-46.153492
30.4063625	-0.0877588913	-46.1809692
30.6071415	-0.0877594277	-46.1986771
30.8078289	-0.0877596959	-46.207428
31.0079765	-0.0877584368	-46.1658134
31.2078686	-0.0877564698	-46.101326
31.4091606	-0.0877584368	-46.1659088
31.6111717	-0.0877623931	-46.2959862
31.8119774	-0.0877629519	-46.3145027
32.0117455	-0.087760672	-46.2395134
32.2125053	-0.087761119	-46.2541237
32.4131126	-0.0877611488	-46.2550583
32.6135139	-0.0877606198	-46.2376862
32.8146973	-0.0877621919	-46.289402
33.0164185	-0.0877651796	-46.3878174
33.2177162	-0.0877669975	-46.4475899
33.4194756	-0.087770015	-46.5469093
33.6201172	-0.0877700821	-46.548893
33.8198738	-0.0877678469	-46.4754448
34.0203896	-0.087767601	-46.46735
34.2207985	-0.087767072	-46.4500465
34.4226494	-0.0877702385	-46.5540771
34.6226845	-0.0877687633	-46.5057716
34.8218575	-0.0877651349	-46.3864288
35.0240631	-0.0877691358	-46.5180435
35.2267609	-0.0877743363	-46.6887169
35.4277611	-0.0877752602	-46.719265
35.6274452	-0.0877729282	-46.6424713
35.8275757	-0.0877717137	-46.6027107
36.027607	-0.0877702907	-46.5556984
36.2280807	-0.0877699405	-46.5442581
36.428688	-0.0877699107	-46.5433846
36.6305389	-0.0877728611	-46.6404076
36.8338699	-0.0877793133	-46.8526535
37.0354271	-0.0877814963	-46.9242821
37.2354622	-0.0877800584	-46.8770294
37.4356613	-0.0877790228	-46.8429565
37.6372452	-0.0877812356	-46.9158058
37.8392372	-0.0877843648	-47.0186844
38.0402565	-0.0877852216	-47.0468636
38.2406578	-0.0877846405	-47.0279274
38.4411583	-0.0877842978	-47.0165558
38.6419411	-0.0877845883	-47.0262527
38.8436127	-0.0877869055	-47.1022758
39.0461349	-0.087791115	-47.2406235
39.2475853	-0.0877928659	-47.2981682
39.4484406	-0.0877932683	-47.3115273
39.6497116	-0.0877946019	-47.3553963
39.8517036	-0.0877975076	-47.4510231
40.053112	-0.0877991021	-47.5034409
40.2552681	-0.0878023133	-47.6090736
40.4577942	-0.0878062993	-47.7401695
40.6595879	-0.0878086686	-47.8179703
40.8608513	-0.0878098607	-47.8572044
41.0624542	-0.0878117681	-47.9199448
41.2608376	-0.0878068134	-47.757122
41.4601097	-0.0878037959	-47.6576996
41.6645889	-0.0878117681	-47.9198837
41.8672447	-0.0878158361	-48.0539055
42.0699615	-0.0878200009	-48.1908569
42.2731895	-0.087825194	-48.361496
42.4760208	-0.0878295153	-48.5035706
42.6785851	-0.0878332332	-48.6258736
42.882309	-0.0878393054	-48.8255615
43.0849991	-0.0878432021	-48.9537964
43.2887001	-0.0878491253	-49.1485977
43.4959297	-0.0878621116	-49.5756264
43.7000618	-0.087868765	-49.7943535
43.9022903	-0.0878715441	-49.8857231
44.1059875	-0.087877214	-50.0722961
44.3155518	-0.0878944695	-50.6399307
44.5277176	-0.087916702	-51.3711166
-35.7487793	-0.289650738	-59.1938629
-35.527813	-0.289492071	-57.6057549
-35.3032303	-0.289301991	-55.7030411
-35.0846481	-0.289159149	-54.2734337
-34.8712845	-0.28905797	-53.26054
-34.6635742	-0.289002717	-52.7075768
-34.4573708	-0.288959444	-52.2744751
-34.251091	-0.288915068	-51.830143
-34.0451393	-0.288872898	-51.408268
-33.8391228	-0.288829684	-50.9756508
-33.6291695	-0.288752198	-50.2001114
-33.4199524	-0.288680047	-49.4779625
-33.2101059	-0.288601667	-48.6931458
-33.0032692	-0.288548589	-48.1621437
-32.7976418	-0.288505495	-47.7305717
-32.5933266	-0.288473487	-47.4103203
-32.3873749	-0.288426518	-46.9401741
-32.1851311	-0.288412213	-46.7969131
-31.9832897	-0.288401306	-46.6878281
-31.7812576	-0.28838855	-46.5601921
-31.5798874	-0.288381696	-46.4916306
-31.3782749	-0.288372517	-46.3996353
-31.1769142	-0.288365513	-46.3296814
-30.9748306	-0.288351744	-46.1917915
-30.7729053	-0.288339257	-46.0669098
-30.5703373	-0.288320571	-45.8797035
-30.3687363	-0.288310736	-45.7814331
-30.1655121	-0.288285315	-45.5269165
-29.9660912	-0.288296133	-45.6354218
-29.7663383	-0.288303912	-45.7131653
-29.5666447	-0.288312346	-45.7975006
-29.3646469	-0.288298309	-45.6569939
-29.1617298	-0.288274974	-45.4232292
-28.9600487	-0.288263559	-45.3090897
-28.7594509	-0.288262933	-45.302681
-28.5594559	-0.288268298	-45.3567429
-28.3593979	-0.288273156	-45.4051933
-28.1591892	-0.288276523	-45.439064
-27.9585953	-0.288275957	-45.4333878
-27.7567577	-0.288262486	-45.2984962
-27.5557728	-0.288257748	-45.2510757
-27.3564644	-0.288270563	-45.379425
-27.1576996	-0.288289368	-45.5675888
-26.9593315	-0.288312703	-45.8011589
-26.758543	-0.288310289	-45.7769279
-26.5573616	-0.288303614	-45.7100487
-26.357008	-0.288305879	-45.7326927
-26.1558323	-0.288299084	-45.6647644
-25.9552803	-0.288299114	-45.66502
-25.7573624	-0.288328618	-45.960598
-25.5577297	-0.288339287	-46.0670509
-25.3574886	-0.288343191	-46.1061249
-25.1565952	-0.288339704	-46.0711517
-24.9563217	-0.288343281	-46.1070518
-24.7552242	-0.28833732	-46.0474968
-24.554966	-0.288341135	-46.0855904
-24.3542042	-0.288339019	-46.0643616
-24.1569557	-0.288378835	-46.4628716
-23.9568291	-0.288384676	-46.5214729
-23.7576599	-0.28840223	-46.6972618
-23.555542	-0.288383991	-46.5144882
-23.3557777	-0.288394511	-46.6199646
-23.1537991	-0.288377613	-46.4508667
-22.9510288	-0.288350493	-46.1792297
-22.7506294	-0.288352877	-46.203167
-22.5498543	-0.288350582	-46.1803017
-22.3502121	-0.288362861	-46.3029404
-22.1496811	-0.288363725	-46.3118134
-21.9488449	-0.288360626	-46.2808914
-21.7483158	-0.288361549	-46.2900085
-21.5478268	-0.288363039	-46.3048096
-21.3464584	-0.288352668	-46.2008934
-21.1447563	-0.288337529	-46.049614
-20.9433537	-0.288326234	-45.9367332
-20.7437096	-0.288339198	-46.0662079
-20.5433159	-0.28834185	-46.0927315
-20.3423347	-0.288336247	-46.0367355
-20.1408443	-0.288323224	-45.9065247
-19.9399834	-0.288319081	-45.864933
-19.7393837	-0.288318634	-45.8604507
-19.5384445	-0.28831321	-45.8061638
-19.3382854	-0.28831923	-45.866375
-19.1375313	-0.288316458	-45.8386993
-18.935358	-0.28829205	-45.5942307
-18.733408	-0.288270503	-45.378643
-18.533577	-0.288281471	-45.4884148
